-82840.0 	104340.0 	-52.0
-68266.183844 	104340.0 	-32.8217493822
-53692.367688 	104340.0 	-22.134374846
-39118.551532 	104340.0 	-11.8552820131
-24544.735376 	104340.0 	338.457675131
-9970.91922006 	104340.0 	81.0870992912
4602.89693593 	104340.0 	94.0
19176.7130919 	104340.0 	21.512203648
33750.5292479 	104340.0 	-6.45284524981
48324.3454039 	104340.0 	-11.6405333067
62898.1615599 	104340.0 	-14.7464721108
77471.9777159 	104340.0 	-19.9912620626
-82840.0 	89580.9972299 	-23.4651884411
-68266.183844 	89580.9972299 	0.616695686354
-53692.367688 	89580.9972299 	73.7134337876
-39118.551532 	89580.9972299 	24.8094788773
-24544.735376 	89580.9972299 	91.523105579
-9970.91922006 	89580.9972299 	73.896153549
4602.89693593 	89580.9972299 	156.950581038
19176.7130919 	89580.9972299 	331.611419583
33750.5292479 	89580.9972299 	265.654086999
48324.3454039 	89580.9972299 	30.1708232353
62898.1615599 	89580.9972299 	3.80273021586
77471.9777159 	89580.9972299 	60.2903714486
-82840.0 	74821.9944598 	0.58864265928
-68266.183844 	74821.9944598 	352.66736244
-53692.367688 	74821.9944598 	409.871635748
-39118.551532 	74821.9944598 	596.57702021
-24544.735376 	74821.9944598 	52.7728531856
-9970.91922006 	74821.9944598 	69.2851068767
4602.89693593 	74821.9944598 	502.952595211
19176.7130919 	74821.9944598 	583.300199483
33750.5292479 	74821.9944598 	408.599893182
48324.3454039 	74821.9944598 	249.993546581
62898.1615599 	74821.9944598 	157.308870453
77471.9777159 	74821.9944598 	190.931422614
-82840.0 	60062.9916898 	187.581717452
-68266.183844 	60062.9916898 	169.270352363
-53692.367688 	60062.9916898 	7.17822574758
-39118.551532 	60062.9916898 	1.73261015419
-24544.735376 	60062.9916898 	22.6494744557
-9970.91922006 	60062.9916898 	584.20158276
4602.89693593 	60062.9916898 	227.108083541
19176.7130919 	60062.9916898 	121.866877923
33750.5292479 	60062.9916898 	528.034106461
48324.3454039 	60062.9916898 	636.466748173
62898.1615599 	60062.9916898 	679.876326442
77471.9777159 	60062.9916898 	185.391706203
-82840.0 	45303.9889197 	44.8407202216
-68266.183844 	45303.9889197 	-1.91079666229
-53692.367688 	45303.9889197 	-0.792376258716
-39118.551532 	45303.9889197 	1.91281920869
-24544.735376 	45303.9889197 	139.577448896
-9970.91922006 	45303.9889197 	261.289483659
4602.89693593 	45303.9889197 	561.004226843
19176.7130919 	45303.9889197 	843.190666733
33750.5292479 	45303.9889197 	494.393870878
48324.3454039 	45303.9889197 	802.227831754
62898.1615599 	45303.9889197 	734.797775684
77471.9777159 	45303.9889197 	326.237290075
-82840.0 	30544.9861496 	448.652354571
-68266.183844 	30544.9861496 	184.851303706
-53692.367688 	30544.9861496 	-7.61289052673
-39118.551532 	30544.9861496 	-5.32835661331
-24544.735376 	30544.9861496 	64.9648657751
-9970.91922006 	30544.9861496 	57.9940581591
4602.89693593 	30544.9861496 	306.818064343
19176.7130919 	30544.9861496 	625.71949088
33750.5292479 	30544.9861496 	743.371018443
48324.3454039 	30544.9861496 	781.376261679
62898.1615599 	30544.9861496 	624.568062247
77471.9777159 	30544.9861496 	269.257805143
-82840.0 	15785.9833795 	129.648199446
-68266.183844 	15785.9833795 	3.39503383585
-53692.367688 	15785.9833795 	-11.6389297758
-39118.551532 	15785.9833795 	-18.4981608073
-24544.735376 	15785.9833795 	2.1115508608
-9970.91922006 	15785.9833795 	91.2174198582
4602.89693593 	15785.9833795 	101.877047058
19176.7130919 	15785.9833795 	401.642746522
33750.5292479 	15785.9833795 	1074.9716124
48324.3454039 	15785.9833795 	782.356423135
62898.1615599 	15785.9833795 	392.157695401
77471.9777159 	15785.9833795 	449.94916395
-82840.0 	1026.98060942 	72.3559556787
-68266.183844 	1026.98060942 	-34.4693576668
-53692.367688 	1026.98060942 	887.565614061
-39118.551532 	1026.98060942 	-23.7766971051
-24544.735376 	1026.98060942 	-9.29284303048
-9970.91922006 	1026.98060942 	3.37950138504
4602.89693593 	1026.98060942 	2.75900277008
19176.7130919 	1026.98060942 	596.348386986
33750.5292479 	1026.98060942 	800.399239353
48324.3454039 	1026.98060942 	513.862439422
62898.1615599 	1026.98060942 	933.528857663
77471.9777159 	1026.98060942 	1149.43175814
-82840.0 	-13732.0221607 	-34.9663356242
-68266.183844 	-13732.0221607 	15.5949379029
-53692.367688 	-13732.0221607 	-8.22073192618
-39118.551532 	-13732.0221607 	-43.4061714324
-24544.735376 	-13732.0221607 	80.9091601031
-9970.91922006 	-13732.0221607 	0.418282548476
4602.89693593 	-13732.0221607 	77.3292619342
19176.7130919 	-13732.0221607 	202.202303308
33750.5292479 	-13732.0221607 	735.57392628
48324.3454039 	-13732.0221607 	772.555171183
62898.1615599 	-13732.0221607 	612.274811487
77471.9777159 	-13732.0221607 	476.871410561
-82840.0 	-28491.0249307 	-34.4055398957
-68266.183844 	-28491.0249307 	55.6498814813
-53692.367688 	-28491.0249307 	-21.5876148175
-39118.551532 	-28491.0249307 	11.0994860144
-24544.735376 	-28491.0249307 	-3.99293415497
-9970.91922006 	-28491.0249307 	221.807087524
4602.89693593 	-28491.0249307 	925.985398434
19176.7130919 	-28491.0249307 	1020.35655554
33750.5292479 	-28491.0249307 	715.316665946
48324.3454039 	-28491.0249307 	824.725266158
62898.1615599 	-28491.0249307 	317.499233591
77471.9777159 	-28491.0249307 	135.947031075
-82840.0 	-43250.0277008 	21.2257617729
-68266.183844 	-43250.0277008 	195.613476268
-53692.367688 	-43250.0277008 	-35.1800844552
-39118.551532 	-43250.0277008 	-24.700543886
-24544.735376 	-43250.0277008 	217.040188891
-9970.91922006 	-43250.0277008 	249.907317161
4602.89693593 	-43250.0277008 	951.628177353
19176.7130919 	-43250.0277008 	934.128105363
33750.5292479 	-43250.0277008 	1331.03323499
48324.3454039 	-43250.0277008 	1214.64358986
62898.1615599 	-43250.0277008 	458.032447777
77471.9777159 	-43250.0277008 	245.794522925
-82840.0 	-58009.0304709 	27.2908587258
-68266.183844 	-58009.0304709 	-58.3310292356
-53692.367688 	-58009.0304709 	-36.3867197313
-39118.551532 	-58009.0304709 	-19.7393850381
-24544.735376 	-58009.0304709 	160.824691855
-9970.91922006 	-58009.0304709 	176.886996568
4602.89693593 	-58009.0304709 	147.34235644
19176.7130919 	-58009.0304709 	174.97167208
33750.5292479 	-58009.0304709 	1045.8673834
48324.3454039 	-58009.0304709 	440.829887697
62898.1615599 	-58009.0304709 	343.875757307
77471.9777159 	-58009.0304709 	517.293594974
